ply
format ascii 1.0
comment point cloud of image
element vertex 1357
property float x
property float y
property float z
property uchar red
property uchar green
property uchar blue
property uchar alpha
element face 0
property list uchar int vertex_indices
end_header
6.5 22.5 5.41176470588 254 7 58 255
6.5 22.0 5.05882352941 253 6 61 255
6.5 21.5 4.74509803922 252 8 61 255
6.5 21.0 4.27450980392 250 9 58 255
6.5 20.5 3.80392156863 248 11 55 255
6.5 20.0 3.56862745098 251 8 55 255
6.5 19.5 3.41176470588 253 7 56 255
6.5 19.0 3.17647058824 253 7 56 255
6.5 18.5 2.94117647059 253 7 56 255
6.5 18.0 2.23529411765 253 7 56 255
6.5 17.5 2.58823529412 253 7 56 255
6.5 17.0 3.17647058824 253 7 56 255
6.5 16.5 3.64705882353 253 8 56 255
6.5 16.0 4.07843137255 254 8 56 255
6.5 15.5 4.35294117647 254 8 56 255
6.5 15.0 4.54901960784 251 9 55 255
6.5 14.5 4.66666666667 249 10 55 255
6.5 14.0 4.78431372549 247 11 55 255
6.5 13.5 4.86274509804 248 11 58 255
6.5 13.0 4.94117647059 249 12 57 255
6.5 12.5 5.05882352941 251 12 54 255
6.5 12.0 5.17647058824 254 10 56 255
6.5 11.5 5.6862745098 251 9 58 255
6.5 11.0 6.86274509804 244 14 58 255
6.5 10.5 7.60784313725 213 19 50 255
6.5 10.0 7.6862745098 139 20 45 255
6.5 9.5 7.6862745098 76 19 39 255
6.5 9.0 7.6862745098 78 68 25 255
6.5 8.5 7.6862745098 178 174 44 255
6.5 8.0 7.6862745098 234 219 55 255
6.5 7.5 7.6862745098 232 223 45 255
6.5 7.0 7.6862745098 229 224 40 255
6.5 6.5 7.56862745098 233 222 42 255
6.5 6.0 7.25490196078 233 222 42 255
6.5 5.5 6.86274509804 233 222 42 255
6.5 5.0 6.39215686275 233 222 42 255
6.5 4.5 5.88235294118 233 222 42 255
6.5 4.0 4.50980392157 233 222 42 255
6.5 3.5 0.470588235294 233 222 44 255
6.5 3.0 0 233 222 44 255
6.5 2.5 0 233 222 44 255
6.5 2.0 0 233 222 44 255
6.5 1.5 0 233 222 44 255
6.5 1.0 0 233 222 44 255
6.5 0.5 0 233 222 44 255
6.5 0.0 0 233 222 44 255
7.0 35.0 0 233 222 42 255
7.0 34.5 0 233 222 42 255
7.0 34.0 0 233 222 42 255
7.0 33.5 0 233 222 42 255
7.0 33.0 0 233 222 42 255
7.0 32.5 0.392156862745 233 222 42 255
7.0 32.0 4.23529411765 233 222 42 255
7.0 31.5 7.17647058824 233 222 42 255
7.0 31.0 8.07843137255 233 222 42 255
7.0 30.5 8.1568627451 233 222 42 255
7.0 30.0 8.1568627451 232 222 43 255
7.0 29.5 8.1568627451 234 220 48 255
7.0 29.0 8.1568627451 236 222 40 255
7.0 28.5 8.1568627451 233 219 43 255
7.0 28.0 8.1568627451 174 162 61 255
7.0 27.5 8.1568627451 71 55 28 255
7.0 27.0 8.1568627451 84 20 32 255
7.0 26.5 8.1568627451 183 18 52 255
7.0 26.0 8.1568627451 241 14 55 255
7.0 25.5 8.11764705882 254 8 51 255
7.0 25.0 8.0 254 6 58 255
7.0 24.5 7.80392156863 250 8 66 255
7.0 24.0 7.49019607843 251 8 62 255
7.0 23.5 7.05882352941 254 7 55 255
7.0 23.0 6.50980392157 251 8 58 255
7.0 22.5 5.96078431373 252 8 59 255
7.0 22.0 5.29411764706 253 6 61 255
7.0 21.5 4.3137254902 254 5 60 255
7.0 21.0 3.52941176471 254 5 57 255
7.0 20.5 3.37254901961 251 7 53 255
7.0 20.0 3.45098039216 248 6 54 255
7.0 19.5 3.25490196078 248 10 59 255
7.0 19.0 2.90196078431 247 13 61 255
7.0 18.5 2.35294117647 246 15 62 255
7.0 18.0 0.43137254902 246 17 63 255
7.0 17.5 0.0392156862745 246 16 63 255
7.0 17.0 0.196078431373 244 15 61 255
7.0 16.5 0.470588235294 241 14 59 255
7.0 16.0 0.823529411765 247 8 57 255
7.0 15.5 1.33333333333 253 5 55 255
7.0 15.0 1.96078431373 255 6 56 255
7.0 14.5 2.66666666667 254 8 56 255
7.0 14.0 3.37254901961 253 10 55 255
7.0 13.5 3.92156862745 253 10 64 255
7.0 13.0 4.39215686275 254 8 65 255
7.0 12.5 4.98039215686 255 9 60 255
7.0 12.0 6.27450980392 254 10 60 255
7.0 11.5 7.6862745098 250 10 61 255
7.0 11.0 8.1568627451 250 9 59 255
7.0 10.5 8.1568627451 250 10 58 255
7.0 10.0 8.1568627451 226 15 59 255
7.0 9.5 8.1568627451 153 23 48 255
7.0 9.0 8.1568627451 62 22 37 255
7.0 8.5 8.1568627451 68 69 34 255
7.0 8.0 8.1568627451 190 178 55 255
7.0 7.5 8.11764705882 233 220 45 255
7.0 7.0 7.92156862745 228 223 42 255
7.0 6.5 7.60784313725 233 222 43 255
7.0 6.0 7.17647058824 233 222 42 255
7.0 5.5 6.70588235294 232 223 42 255
7.0 5.0 6.23529411765 233 223 41 255
7.0 4.5 5.72549019608 233 223 41 255
7.0 4.0 4.11764705882 233 222 41 255
7.0 3.5 0.274509803922 233 222 43 255
7.0 3.0 0 233 222 44 255
7.0 2.5 0 233 222 44 255
7.0 2.0 0 233 222 44 255
7.0 1.5 0 233 222 44 255
7.0 1.0 0 233 222 44 255
7.0 0.5 0 233 222 44 255
7.0 0.0 0 233 222 44 255
7.5 35.0 0 233 222 42 255
7.5 34.5 0 233 222 42 255
7.5 34.0 0 233 222 42 255
7.5 33.5 0 233 222 42 255
7.5 33.0 0 233 222 42 255
7.5 32.5 0.941176470588 233 222 42 255
7.5 32.0 7.05882352941 233 222 42 255
7.5 31.5 8.23529411765 233 222 42 255
7.5 31.0 8.3137254902 233 222 42 255
7.5 30.5 8.39215686275 233 222 42 255
7.5 30.0 8.47058823529 233 222 44 255
7.5 29.5 8.50980392157 234 220 43 255
7.5 29.0 8.54901960784 235 222 41 255
7.5 28.5 8.54901960784 193 184 52 255
7.5 28.0 8.58823529412 73 68 42 255
7.5 27.5 8.58823529412 69 25 38 255
7.5 27.0 8.58823529412 176 20 48 255
7.5 26.5 8.58823529412 244 11 57 255
7.5 26.0 8.58823529412 254 7 58 255
7.5 25.5 8.58823529412 255 6 56 255
7.5 25.0 8.58823529412 254 8 55 255
7.5 24.5 8.58823529412 252 10 54 255
7.5 24.0 8.58823529412 253 9 53 255
7.5 23.5 8.58823529412 254 7 52 255
7.5 23.0 8.54901960784 251 8 53 255
7.5 22.5 8.39215686275 248 11 55 255
7.5 22.0 8.03921568627 249 10 56 255
7.5 21.5 7.37254901961 251 4 54 255
7.5 21.0 6.66666666667 242 9 54 255
7.5 20.5 5.88235294118 229 29 64 255
7.5 20.0 5.13725490196 223 60 92 255
7.5 19.5 4.3137254902 238 92 123 255
7.5 19.0 3.49019607843 246 114 141 255
7.5 18.5 2.58823529412 248 128 152 255
7.5 18.0 0.549019607843 250 135 158 255
7.5 17.5 0 251 133 157 255
7.5 17.0 0 244 119 144 255
7.5 16.5 0 238 99 129 255
7.5 16.0 0 239 69 106 255
7.5 15.5 0 240 36 80 255
7.5 15.0 0 240 16 61 255
7.5 14.5 0.0392156862745 245 10 55 255
7.5 14.0 0.156862745098 253 8 55 255
7.5 13.5 0.470588235294 252 10 58 255
7.5 13.0 2.23529411765 252 8 58 255
7.5 12.5 6.47058823529 255 7 60 255
7.5 12.0 8.43137254902 254 7 61 255
7.5 11.5 8.58823529412 253 8 61 255
7.5 11.0 8.58823529412 253 9 59 255
7.5 10.5 8.58823529412 252 10 59 255
7.5 10.0 8.58823529412 250 9 58 255
7.5 9.5 8.58823529412 231 16 58 255
7.5 9.0 8.58823529412 158 17 55 255
7.5 8.5 8.58823529412 57 22 29 255
7.5 8.0 8.50980392157 91 84 25 255
7.5 7.5 8.27450980392 197 191 52 255
7.5 7.0 7.92156862745 227 226 47 255
7.5 6.5 7.49019607843 232 222 43 255
7.5 6.0 7.05882352941 232 223 40 255
7.5 5.5 6.58823529412 231 223 40 255
7.5 5.0 6.07843137255 232 223 41 255
7.5 4.5 5.60784313725 233 223 40 255
7.5 4.0 3.6862745098 233 223 38 255
7.5 3.5 0.156862745098 233 222 41 255
7.5 3.0 0 233 222 42 255
7.5 2.5 0 233 222 42 255
7.5 2.0 0 233 222 42 255
7.5 1.5 0 233 222 42 255
7.5 1.0 0 233 222 42 255
7.5 0.5 0 233 222 43 255
7.5 0.0 0 233 222 44 255
8.0 35.0 0 233 222 42 255
8.0 34.5 0 233 222 42 255
8.0 34.0 0 233 222 42 255
8.0 33.5 0 233 222 42 255
8.0 33.0 0 233 222 42 255
8.0 32.5 0.666666666667 233 222 42 255
8.0 32.0 6.58823529412 233 222 42 255
8.0 31.5 8.1568627451 233 222 42 255
8.0 31.0 8.23529411765 233 222 42 255
8.0 30.5 8.35294117647 233 222 42 255
8.0 30.0 8.43137254902 231 222 46 255
8.0 29.5 8.54901960784 228 224 38 255
8.0 29.0 8.62745098039 218 211 47 255
8.0 28.5 8.70588235294 117 109 43 255
8.0 28.0 8.78431372549 58 24 25 255
8.0 27.5 8.82352941176 158 17 41 255
8.0 27.0 8.90196078431 233 12 61 255
8.0 26.5 8.94117647059 253 7 63 255
8.0 26.0 8.98039215686 255 6 59 255
8.0 25.5 9.01960784314 252 9 57 255
8.0 25.0 9.01960784314 249 10 55 255
8.0 24.5 9.01960784314 248 12 54 255
8.0 24.0 9.01960784314 250 11 53 255
8.0 23.5 9.01960784314 248 12 53 255
8.0 23.0 9.01960784314 243 12 53 255
8.0 22.5 9.01960784314 247 9 55 255
8.0 22.0 9.01960784314 242 14 61 255
8.0 21.5 9.01960784314 236 45 85 255
8.0 21.0 9.01960784314 234 95 124 255
8.0 20.5 9.01960784314 241 151 169 255
8.0 20.0 8.90196078431 247 207 215 255
8.0 19.5 8.66666666667 252 230 234 255
8.0 19.0 8.19607843137 252 239 240 255
8.0 18.5 7.41176470588 251 245 244 255
8.0 18.0 5.96078431373 251 246 246 255
8.0 17.5 4.47058823529 252 245 244 255
8.0 17.0 3.13725490196 254 240 241 255
8.0 16.5 2.03921568627 254 230 234 255
8.0 16.0 1.13725490196 253 213 221 255
8.0 15.5 0.509803921569 248 176 188 255
8.0 15.0 0.156862745098 238 125 145 255
8.0 14.5 0 233 70 103 255
8.0 14.0 0.470588235294 238 25 71 255
8.0 13.5 3.49019607843 251 8 59 255
8.0 13.0 7.64705882353 254 7 58 255
8.0 12.5 8.98039215686 255 5 57 255
8.0 12.0 9.01960784314 255 5 59 255
8.0 11.5 9.01960784314 254 7 59 255
8.0 11.0 9.01960784314 251 11 60 255
8.0 10.5 9.01960784314 247 13 58 255
8.0 10.0 9.01960784314 253 10 57 255
8.0 9.5 9.01960784314 251 10 67 255
8.0 9.0 9.01960784314 224 15 66 255
8.0 8.5 8.90196078431 142 22 48 255
8.0 8.0 8.62745098039 52 32 14 255
8.0 7.5 8.23529411765 115 116 30 255
8.0 7.0 7.80392156863 225 211 59 255
8.0 6.5 7.37254901961 235 223 41 255
8.0 6.0 6.90196078431 234 224 36 255
8.0 5.5 6.43137254902 234 223 39 255
8.0 5.0 5.96078431373 233 222 45 255
8.0 4.5 5.45098039216 233 222 44 255
8.0 4.0 3.21568627451 232 223 39 255
8.0 3.5 0.078431372549 233 223 41 255
8.0 3.0 0 233 222 42 255
8.0 2.5 0 233 222 42 255
8.0 2.0 0 233 222 42 255
8.0 1.5 0 233 222 42 255
8.0 1.0 0 233 222 42 255
8.0 0.5 0 233 222 43 255
8.0 0.0 0 233 222 44 255
8.5 35.0 0 233 222 42 255
8.5 34.5 0 233 222 42 255
8.5 34.0 0 233 222 42 255
8.5 33.5 0 233 222 42 255
8.5 33.0 0 233 222 42 255
8.5 32.5 0.392156862745 233 222 42 255
8.5 32.0 6.03921568627 233 222 42 255
8.5 31.5 8.03921568627 233 222 42 255
8.5 31.0 8.1568627451 233 222 42 255
8.5 30.5 8.23529411765 233 222 42 255
8.5 30.0 8.35294117647 233 222 44 255
8.5 29.5 8.43137254902 228 223 48 255
8.5 29.0 8.50980392157 153 150 43 255
8.5 28.5 8.62745098039 55 38 38 255
8.5 28.0 8.70588235294 121 23 45 255
8.5 27.5 8.78431372549 223 15 50 255
8.5 27.0 8.90196078431 252 6 63 255
8.5 26.5 8.98039215686 255 6 63 255
8.5 26.0 9.05882352941 253 8 57 255
8.5 25.5 9.13725490196 248 11 57 255
8.5 25.0 9.21568627451 250 10 57 255
8.5 24.5 9.29411764706 252 7 56 255
8.5 24.0 9.33333333333 254 7 56 255
8.5 23.5 9.37254901961 252 7 55 255
8.5 23.0 9.41176470588 248 10 57 255
8.5 22.5 9.41176470588 241 43 82 255
8.5 22.0 9.45098039216 242 117 140 255
8.5 21.5 9.45098039216 250 194 205 255
8.5 21.0 9.45098039216 252 234 239 255
8.5 20.5 9.45098039216 249 246 250 255
8.5 20.0 9.45098039216 253 250 253 255
8.5 19.5 9.45098039216 254 249 253 255
8.5 19.0 9.45098039216 254 252 254 255
8.5 18.5 9.45098039216 253 252 254 255
8.5 18.0 9.45098039216 253 251 254 255
8.5 17.5 9.45098039216 254 250 254 255
8.5 17.0 9.29411764706 254 250 254 255
8.5 16.5 8.90196078431 252 251 254 255
8.5 16.0 8.23529411765 251 251 252 255
8.5 15.5 7.33333333333 249 250 249 255
8.5 15.0 6.1568627451 251 242 241 255
8.5 14.5 4.82352941176 253 216 224 255
8.5 14.0 6.27450980392 248 159 181 255
8.5 13.5 9.05882352941 242 77 110 255
8.5 13.0 9.45098039216 239 26 68 255
8.5 12.5 9.45098039216 247 9 57 255
8.5 12.0 9.45098039216 251 8 56 255
8.5 11.5 9.45098039216 248 12 58 255
8.5 11.0 9.45098039216 251 10 61 255
8.5 10.5 9.45098039216 253 8 61 255
8.5 10.0 9.45098039216 254 8 58 255
8.5 9.5 9.41176470588 255 7 60 255
8.5 9.0 9.21568627451 252 8 63 255
8.5 8.5 8.94117647059 221 13 68 255
8.5 8.0 8.50980392157 107 23 43 255
8.5 7.5 8.11764705882 53 45 19 255
8.5 7.0 7.6862745098 161 148 47 255
8.5 6.5 7.21568627451 233 221 54 255
8.5 6.0 6.78431372549 234 222 36 255
8.5 5.5 6.23529411765 235 222 37 255
8.5 5.0 5.80392156863 235 220 49 255
8.5 4.5 5.29411764706 233 221 48 255
8.5 4.0 2.70588235294 231 224 40 255
8.5 3.5 0 233 223 41 255
8.5 3.0 0 233 222 42 255
8.5 2.5 0 233 222 42 255
8.5 2.0 0 233 222 42 255
8.5 1.5 0 233 222 42 255
8.5 1.0 0 233 222 42 255
8.5 0.5 0 233 222 43 255
8.5 0.0 0 233 222 44 255
9.0 35.0 0 233 222 42 255
9.0 34.5 0 233 222 42 255
9.0 34.0 0 233 222 42 255
9.0 33.5 0 233 222 42 255
9.0 33.0 0 233 222 42 255
9.0 32.5 0.196078431373 233 222 42 255
9.0 32.0 5.41176470588 233 222 42 255
9.0 31.5 7.96078431373 233 222 42 255
9.0 31.0 8.03921568627 232 221 41 255
9.0 30.5 8.11764705882 232 221 41 255
9.0 30.0 8.23529411765 234 223 45 255
9.0 29.5 8.3137254902 205 191 55 255
9.0 29.0 8.43137254902 82 74 34 255
9.0 28.5 8.50980392157 70 17 44 255
9.0 28.0 8.62745098039 188 21 53 255
9.0 27.5 8.70588235294 239 13 59 255
9.0 27.0 8.78431372549 249 8 59 255
9.0 26.5 8.90196078431 253 7 55 255
9.0 26.0 8.98039215686 249 10 57 255
9.0 25.5 9.05882352941 248 11 57 255
9.0 25.0 9.17647058824 254 7 59 255
9.0 24.5 9.25490196078 255 2 58 255
9.0 24.0 9.33333333333 252 5 58 255
9.0 23.5 9.41176470588 238 16 62 255
9.0 23.0 9.49019607843 239 71 105 255
9.0 22.5 9.56862745098 251 174 184 255
9.0 22.0 9.64705882353 253 237 233 255
9.0 21.5 9.6862745098 254 248 250 255
9.0 21.0 9.76470588235 253 248 254 255
9.0 20.5 9.80392156863 245 253 255 255
9.0 20.0 9.80392156863 243 251 251 255
9.0 19.5 9.8431372549 245 248 247 255
9.0 19.0 9.8431372549 235 239 238 255
9.0 18.5 9.8431372549 227 230 229 255
9.0 18.0 9.8431372549 226 228 228 255
9.0 17.5 9.8431372549 228 229 229 255
9.0 17.0 9.8431372549 229 233 233 255
9.0 16.5 9.8431372549 228 240 240 255
9.0 16.0 9.8431372549 245 244 249 255
9.0 15.5 9.8431372549 253 246 253 255
9.0 15.0 9.8431372549 254 248 253 255
9.0 14.5 9.8431372549 253 251 252 255
9.0 14.0 9.8431372549 250 247 247 255
9.0 13.5 9.8431372549 252 219 222 255
9.0 13.0 9.8431372549 242 135 155 255
9.0 12.5 9.8431372549 232 37 77 255
9.0 12.0 9.8431372549 245 8 57 255
9.0 11.5 9.8431372549 249 11 59 255
9.0 11.0 9.8431372549 251 11 62 255
9.0 10.5 9.8431372549 252 6 64 255
9.0 10.0 9.76470588235 253 8 61 255
9.0 9.5 9.56862745098 254 10 49 255
9.0 9.0 9.21568627451 250 10 60 255
9.0 8.5 8.82352941176 248 7 75 255
9.0 8.0 8.39215686275 182 19 59 255
9.0 7.5 7.96078431373 71 22 33 255
9.0 7.0 7.52941176471 85 79 29 255
9.0 6.5 7.05882352941 204 197 68 255
9.0 6.0 6.35294117647 232 224 50 255
9.0 5.5 5.88235294118 233 221 34 255
9.0 5.0 5.64705882353 235 220 47 255
9.0 4.5 5.13725490196 233 221 49 255
9.0 4.0 2.23529411765 231 224 40 255
9.0 3.5 0 233 223 41 255
9.0 3.0 0 233 222 42 255
9.0 2.5 0 233 222 42 255
9.0 2.0 0 233 222 42 255
9.0 1.5 0 233 222 42 255
9.0 1.0 0 233 222 42 255
9.0 0.5 0 233 222 43 255
9.0 0.0 0 233 222 44 255
9.5 35.0 0 233 222 42 255
9.5 34.5 0 233 222 42 255
9.5 34.0 0 233 222 42 255
9.5 33.5 0 233 222 42 255
9.5 33.0 0 233 222 42 255
9.5 32.5 0.078431372549 233 222 42 255
9.5 32.0 4.70588235294 233 222 42 255
9.5 31.5 7.8431372549 233 222 42 255
9.5 31.0 7.92156862745 232 221 41 255
9.5 30.5 8.03921568627 233 222 43 255
9.5 30.0 8.11764705882 228 220 53 255
9.5 29.5 8.23529411765 140 132 43 255
9.5 29.0 8.3137254902 62 29 34 255
9.5 28.5 8.43137254902 135 18 50 255
9.5 28.0 8.50980392157 234 13 53 255
9.5 27.5 8.58823529412 249 8 57 255
9.5 27.0 8.70588235294 244 12 55 255
9.5 26.5 8.78431372549 251 9 53 255
9.5 26.0 8.90196078431 251 9 57 255
9.5 25.5 8.98039215686 250 10 58 255
9.5 25.0 9.05882352941 254 5 59 255
9.5 24.5 9.13725490196 249 6 59 255
9.5 24.0 9.25490196078 232 27 68 255
9.5 23.5 9.33333333333 237 111 134 255
9.5 23.0 9.41176470588 250 207 213 255
9.5 22.5 9.49019607843 253 245 242 255
9.5 22.0 9.60784313725 251 253 249 255
9.5 21.5 9.6862745098 250 251 252 255
9.5 21.0 9.76470588235 245 242 245 255
9.5 20.5 9.8431372549 219 213 218 255
9.5 20.0 9.92156862745 161 161 165 255
9.5 19.5 10.0 118 121 125 255
9.5 19.0 10.0 91 95 98 255
9.5 18.5 10.0 77 80 83 255
9.5 18.0 10.0 72 75 79 255
9.5 17.5 10.0 72 77 80 255
9.5 17.0 10.0 78 84 86 255
9.5 16.5 10.0 93 100 101 255
9.5 16.0 10.0 125 126 128 255
9.5 15.5 10.0 169 169 171 255
9.5 15.0 10.0 218 223 223 255
9.5 14.5 10.0 242 246 245 255
9.5 14.0 10.0 252 250 252 255
9.5 13.5 10.0 250 251 252 255
9.5 13.0 10.0 251 233 239 255
9.5 12.5 10.0 248 169 187 255
9.5 12.0 10.0 240 71 104 255
9.5 11.5 10.0 245 14 61 255
9.5 11.0 10.0 251 9 62 255
9.5 10.5 10.0 245 10 63 255
9.5 10.0 9.8431372549 249 10 60 255
9.5 9.5 9.49019607843 250 11 56 255
9.5 9.0 9.09803921569 252 10 59 255
9.5 8.5 8.70588235294 252 9 63 255
9.5 8.0 8.27450980392 229 17 64 255
9.5 7.5 7.8431372549 143 20 52 255
9.5 7.0 7.29411764706 60 28 23 255
9.5 6.5 6.27450980392 125 124 47 255
9.5 6.0 5.72549019608 217 218 62 255
9.5 5.5 5.72549019608 231 226 33 255
9.5 5.0 5.49019607843 234 222 41 255
9.5 4.5 4.94117647059 233 221 48 255
9.5 4.0 1.76470588235 232 223 41 255
9.5 3.5 0 233 223 41 255
9.5 3.0 0 233 222 42 255
9.5 2.5 0 233 222 42 255
9.5 2.0 0 233 222 42 255
9.5 1.5 0 233 222 42 255
9.5 1.0 0 233 222 42 255
9.5 0.5 0 233 222 43 255
9.5 0.0 0 233 222 44 255
10.0 35.0 0 233 222 42 255
10.0 34.5 0 233 222 42 255
10.0 34.0 0 233 222 42 255
10.0 33.5 0 233 222 42 255
10.0 33.0 0 233 222 42 255
10.0 32.5 0 233 223 40 255
10.0 32.0 4.0 232 222 45 255
10.0 31.5 7.72549019608 234 222 39 255
10.0 31.0 7.8431372549 235 221 40 255
10.0 30.5 7.92156862745 235 221 51 255
10.0 30.0 8.03921568627 201 194 55 255
10.0 29.5 8.11764705882 74 74 27 255
10.0 29.0 8.23529411765 83 17 37 255
10.0 28.5 8.3137254902 199 18 55 255
10.0 28.0 8.39215686275 249 9 53 255
10.0 27.5 8.50980392157 254 8 52 255
10.0 27.0 8.58823529412 248 11 54 255
10.0 26.5 8.70588235294 250 10 58 255
10.0 26.0 8.78431372549 254 7 56 255
10.0 25.5 8.86274509804 254 7 56 255
10.0 25.0 8.98039215686 252 6 58 255
10.0 24.5 9.05882352941 233 24 68 255
10.0 24.0 9.13725490196 237 118 142 255
10.0 23.5 9.21568627451 253 221 227 255
10.0 23.0 9.33333333333 253 249 249 255
10.0 22.5 9.41176470588 249 252 250 255
10.0 22.0 9.49019607843 244 251 250 255
10.0 21.5 9.60784313725 211 219 218 255
10.0 21.0 9.6862745098 136 142 141 255
10.0 20.5 9.76470588235 68 68 71 255
10.0 20.0 9.8431372549 36 35 43 255
10.0 19.5 9.92156862745 31 31 42 255
10.0 19.0 10.0 29 29 40 255
10.0 18.5 10.0 30 29 41 255
10.0 18.0 10.0 29 31 42 255
10.0 17.5 10.0 28 32 43 255
10.0 17.0 10.0 27 32 41 255
10.0 16.5 10.0 29 32 36 255
10.0 16.0 10.0 33 31 36 255
10.0 15.5 10.0 37 37 39 255
10.0 15.0 10.0 71 78 76 255
10.0 14.5 10.0 145 152 150 255
10.0 14.0 10.0 220 222 222 255
10.0 13.5 10.0 252 246 252 255
10.0 13.0 10.0 250 250 254 255
10.0 12.5 10.0 241 249 246 255
10.0 12.0 10.0 246 197 203 255
10.0 11.5 10.0 241 73 108 255
10.0 11.0 10.0 247 9 64 255
10.0 10.5 10.0 249 8 60 255
10.0 10.0 9.76470588235 250 11 59 255
10.0 9.5 9.37254901961 248 10 66 255
10.0 9.0 8.98039215686 253 7 59 255
10.0 8.5 8.58823529412 251 11 52 255
10.0 8.0 8.1568627451 244 13 62 255
10.0 7.5 7.41176470588 209 17 62 255
10.0 7.0 6.07843137255 97 20 39 255
10.0 6.5 5.52941176471 58 55 23 255
10.0 6.0 5.56862745098 174 177 51 255
10.0 5.5 5.60784313725 232 226 38 255
10.0 5.0 5.33333333333 236 222 35 255
10.0 4.5 4.74509803922 235 221 41 255
10.0 4.0 1.37254901961 231 223 46 255
10.0 3.5 0 232 222 43 255
10.0 3.0 0 233 222 42 255
10.0 2.5 0 233 222 42 255
10.0 2.0 0 233 222 42 255
10.0 1.5 0 233 222 42 255
10.0 1.0 0 233 222 42 255
10.0 0.5 0 233 222 43 255
10.0 0.0 0 233 222 43 255
10.5 35.0 0 233 222 42 255
10.5 34.5 0 233 222 42 255
10.5 34.0 0 233 222 42 255
10.5 33.5 0 233 222 43 255
10.5 33.0 0 235 221 43 255
10.5 32.5 0 232 224 38 255
10.5 32.0 3.25490196078 231 223 47 255
10.5 31.5 7.60784313725 236 222 39 255
10.5 31.0 7.72549019608 239 221 37 255
10.5 30.5 7.8431372549 234 218 59 255
10.5 30.0 7.92156862745 153 144 45 255
10.5 29.5 8.0 45 38 25 255
10.5 29.0 8.11764705882 125 20 42 255
10.5 28.5 8.19607843137 234 13 61 255
10.5 28.0 8.3137254902 250 10 56 255
10.5 27.5 8.39215686275 252 10 54 255
10.5 27.0 8.50980392157 253 8 57 255
10.5 26.5 8.58823529412 252 7 59 255
10.5 26.0 8.66666666667 251 7 57 255
10.5 25.5 8.78431372549 252 6 54 255
10.5 25.0 8.86274509804 247 14 61 255
10.5 24.5 8.94117647059 241 96 127 255
10.5 24.0 9.05882352941 250 213 223 255
10.5 23.5 9.13725490196 253 249 252 255
10.5 23.0 9.21568627451 250 253 250 255
10.5 22.5 9.33333333333 243 247 244 255
10.5 22.0 9.41176470588 184 188 189 255
10.5 21.5 9.49019607843 87 90 95 255
10.5 21.0 9.56862745098 32 35 42 255
10.5 20.5 9.6862745098 28 31 40 255
10.5 20.0 9.76470588235 30 32 39 255
10.5 19.5 9.8431372549 32 32 39 255
10.5 19.0 9.92156862745 31 32 40 255
10.5 18.5 10.0 31 32 42 255
10.5 18.0 10.0 30 33 43 255
10.5 17.5 10.0 30 33 42 255
10.5 17.0 10.0 30 33 43 255
10.5 16.5 10.0 31 31 42 255
10.5 16.0 10.0 31 31 41 255
10.5 15.5 10.0 31 31 39 255
10.5 15.0 10.0 29 30 35 255
10.5 14.5 10.0 37 38 41 255
10.5 14.0 10.0 95 96 99 255
10.5 13.5 10.0 205 201 204 255
10.5 13.0 10.0 248 245 248 255
10.5 12.5 10.0 242 252 252 255
10.5 12.0 10.0 245 246 247 255
10.5 11.5 10.0 251 178 198 255
10.5 11.0 10.0 239 52 96 255
10.5 10.5 9.96078431373 248 9 61 255
10.5 10.0 9.64705882353 253 10 61 255
10.5 9.5 9.25490196078 251 10 61 255
10.5 9.0 8.86274509804 251 10 59 255
10.5 8.5 8.43137254902 254 9 59 255
10.5 8.0 7.37254901961 252 9 60 255
10.5 7.5 5.76470588235 240 13 59 255
10.5 7.0 5.29411764706 146 23 50 255
10.5 6.5 5.37254901961 50 26 29 255
10.5 6.0 5.45098039216 107 107 34 255
10.5 5.5 5.49019607843 221 214 51 255
10.5 5.0 5.21568627451 240 221 39 255
10.5 4.5 4.47058823529 236 222 41 255
10.5 4.0 1.05882352941 231 222 50 255
10.5 3.5 0 232 222 45 255
10.5 3.0 0 233 222 42 255
10.5 2.5 0 233 222 42 255
10.5 2.0 0 233 222 42 255
10.5 1.5 0 233 222 42 255
10.5 1.0 0 233 222 42 255
10.5 0.5 0 233 222 42 255
10.5 0.0 0 233 222 42 255
11.0 35.0 0 233 222 42 255
11.0 34.5 0 233 222 42 255
11.0 34.0 0 233 222 42 255
11.0 33.5 0 233 222 43 255
11.0 33.0 0 235 221 45 255
11.0 32.5 0 232 224 37 255
11.0 32.0 2.58823529412 231 224 38 255
11.0 31.5 7.41176470588 236 220 47 255
11.0 31.0 7.60784313725 236 220 33 255
11.0 30.5 7.72549019608 223 215 48 255
11.0 30.0 7.80392156863 103 106 29 255
11.0 29.5 7.92156862745 52 29 24 255
11.0 29.0 8.0 173 18 54 255
11.0 28.5 8.07843137255 247 11 62 255
11.0 28.0 8.07843137255 245 12 55 255
11.0 27.5 8.11764705882 253 8 54 255
11.0 27.0 8.23529411765 255 6 57 255
11.0 26.5 8.39215686275 253 6 59 255
11.0 26.0 8.50980392157 242 12 58 255
11.0 25.5 8.66666666667 241 13 59 255
11.0 25.0 8.78431372549 239 62 96 255
11.0 24.5 8.86274509804 251 199 205 255
11.0 24.0 8.94117647059 248 250 248 255
11.0 23.5 9.05882352941 253 251 254 255
11.0 23.0 9.13725490196 245 248 247 255
11.0 22.5 9.21568627451 176 180 180 255
11.0 22.0 9.33333333333 60 64 66 255
11.0 21.5 9.41176470588 27 30 35 255
11.0 21.0 9.49019607843 29 32 40 255
11.0 20.5 9.56862745098 29 32 41 255
11.0 20.0 9.64705882353 30 33 40 255
11.0 19.5 9.76470588235 29 34 40 255
11.0 19.0 9.8431372549 29 34 39 255
11.0 18.5 9.92156862745 29 34 38 255
11.0 18.0 10.0 29 34 39 255
11.0 17.5 10.0 29 34 39 255
11.0 17.0 10.0 30 33 41 255
11.0 16.5 10.0 32 32 44 255
11.0 16.0 10.0 32 32 44 255
11.0 15.5 10.0 32 32 43 255
11.0 15.0 10.0 32 32 41 255
11.0 14.5 10.0 30 31 38 255
11.0 14.0 10.0 29 30 37 255
11.0 13.5 10.0 66 74 75 255
11.0 13.0 10.0 183 185 187 255
11.0 12.5 10.0 249 243 249 255
11.0 12.0 10.0 253 249 253 255
11.0 11.5 10.0 251 241 241 255
11.0 11.0 10.0 248 157 175 255
11.0 10.5 9.88235294118 240 32 78 255
11.0 10.0 9.52941176471 253 6 60 255
11.0 9.5 9.13725490196 255 8 62 255
11.0 9.0 8.66666666667 254 9 61 255
11.0 8.5 7.13725490196 252 9 60 255
11.0 8.0 5.37254901961 251 8 60 255
11.0 7.5 5.09803921569 251 10 61 255
11.0 7.0 5.17647058824 200 20 61 255
11.0 6.5 5.25490196078 89 16 45 255
11.0 6.0 5.37254901961 48 46 31 255
11.0 5.5 5.37254901961 164 168 55 255
11.0 5.0 5.05882352941 230 221 52 255
11.0 4.5 4.19607843137 232 221 55 255
11.0 4.0 0.78431372549 236 223 44 255
11.0 3.5 0 234 222 40 255
11.0 3.0 0 233 222 42 255
11.0 2.5 0 233 222 42 255
11.0 2.0 0 233 222 42 255
11.0 1.5 0 233 222 42 255
11.0 1.0 0 233 222 42 255
11.0 0.5 0 233 222 42 255
11.0 0.0 0 233 222 42 255
11.5 35.0 0 232 221 41 255
11.5 34.5 0 233 222 42 255
11.5 34.0 0 233 222 42 255
11.5 33.5 0 233 222 43 255
11.5 33.0 0 234 221 47 255
11.5 32.5 0 232 224 38 255
11.5 32.0 2.0 232 225 34 255
11.5 31.5 7.13725490196 236 219 52 255
11.5 31.0 7.52941176471 234 222 37 255
11.5 30.5 7.60784313725 203 202 45 255
11.5 30.0 7.6862745098 68 73 24 255
11.5 29.5 7.80392156863 83 24 32 255
11.5 29.0 7.92156862745 213 11 60 255
11.5 28.5 7.96078431373 251 7 60 255
11.5 28.0 7.76470588235 244 13 54 255
11.5 27.5 7.52941176471 253 6 55 255
11.5 27.0 7.33333333333 254 6 58 255
11.5 26.5 7.09803921569 253 6 57 255
11.5 26.0 4.47058823529 245 9 58 255
11.5 25.5 4.66666666667 236 28 73 255
11.5 25.0 6.11764705882 248 152 169 255
11.5 24.5 7.29411764706 245 245 240 255
11.5 24.0 8.19607843137 247 254 251 255
11.5 23.5 8.74509803922 250 251 252 255
11.5 23.0 9.01960784314 196 198 201 255
11.5 22.5 9.13725490196 64 68 71 255
11.5 22.0 9.21568627451 28 32 36 255
11.5 21.5 9.29411764706 29 32 38 255
11.5 21.0 9.41176470588 29 32 40 255
11.5 20.5 9.49019607843 29 31 41 255
11.5 20.0 9.56862745098 29 33 45 255
11.5 19.5 9.64705882353 29 32 45 255
11.5 19.0 9.72549019608 29 33 42 255
11.5 18.5 9.8431372549 28 31 37 255
11.5 18.0 9.92156862745 28 30 37 255
11.5 17.5 9.96078431373 29 30 38 255
11.5 17.0 10.0 32 32 43 255
11.5 16.5 10.0 34 34 45 255
11.5 16.0 10.0 32 32 43 255
11.5 15.5 10.0 33 33 44 255
11.5 15.0 10.0 32 32 42 255
11.5 14.5 10.0 32 32 41 255
11.5 14.0 10.0 31 31 40 255
11.5 13.5 10.0 26 32 36 255
11.5 13.0 10.0 67 76 77 255
11.5 12.5 10.0 200 197 203 255
11.5 12.0 10.0 250 247 252 255
11.5 11.5 10.0 243 254 249 255
11.5 11.0 10.0 251 229 230 255
11.5 10.5 9.80392156863 241 102 133 255
11.5 10.0 9.45098039216 245 14 66 255
11.5 9.5 8.58823529412 254 7 63 255
11.5 9.0 6.54901960784 254 7 62 255
11.5 8.5 5.01960784314 251 9 62 255
11.5 8.0 4.90196078431 252 11 62 255
11.5 7.5 4.98039215686 255 7 62 255
11.5 7.0 5.05882352941 240 11 68 255
11.5 6.5 5.17647058824 154 21 56 255
11.5 6.0 5.25490196078 50 24 37 255
11.5 5.5 5.25490196078 84 88 39 255
11.5 5.0 4.90196078431 200 203 60 255
11.5 4.5 3.88235294118 228 224 51 255
11.5 4.0 0.549019607843 237 222 34 255
11.5 3.5 0 235 222 38 255
11.5 3.0 0 233 222 42 255
11.5 2.5 0 233 222 42 255
11.5 2.0 0 233 222 42 255
11.5 1.5 0 233 222 42 255
11.5 1.0 0 233 222 42 255
11.5 0.5 0 233 222 42 255
11.5 0.0 0 233 222 42 255
12.0 35.0 0 233 222 42 255
12.0 34.5 0 233 222 42 255
12.0 34.0 0 233 222 42 255
12.0 33.5 0 233 222 43 255
12.0 33.0 0 234 221 44 255
12.0 32.5 0 233 223 39 255
12.0 32.0 1.49019607843 232 223 39 255
12.0 31.5 6.82352941176 235 220 49 255
12.0 31.0 7.41176470588 231 222 47 255
12.0 30.5 7.49019607843 161 162 43 255
12.0 30.0 7.60784313725 50 40 22 255
12.0 29.5 7.6862745098 130 17 42 255
12.0 29.0 7.80392156863 239 8 64 255
12.0 28.5 7.8431372549 253 8 59 255
12.0 28.0 7.6862745098 249 12 54 255
12.0 27.5 7.45098039216 254 7 55 255
12.0 27.0 7.13725490196 252 7 58 255
12.0 26.5 6.70588235294 253 8 58 255
12.0 26.0 2.07843137255 249 7 60 255
12.0 25.5 0.0392156862745 244 72 113 255
12.0 25.0 0.274509803922 250 215 222 255
12.0 24.5 0.823529411765 245 254 252 255
12.0 24.0 1.72549019608 253 250 253 255
12.0 23.5 2.94117647059 223 225 227 255
12.0 23.0 4.62745098039 96 99 105 255
12.0 22.5 6.54901960784 26 29 35 255
12.0 22.0 7.6862745098 30 33 39 255
12.0 21.5 8.50980392157 29 32 39 255
12.0 21.0 9.05882352941 28 31 39 255
12.0 20.5 9.37254901961 31 34 42 255
12.0 20.0 9.49019607843 29 31 44 255
12.0 19.5 9.56862745098 28 30 42 255
12.0 19.0 9.64705882353 40 42 46 255
12.0 18.5 9.72549019608 54 54 54 255
12.0 18.0 9.80392156863 66 63 63 255
12.0 17.5 9.88235294118 63 57 62 255
12.0 17.0 9.96078431373 44 38 46 255
12.0 16.5 10.0 32 31 37 255
12.0 16.0 10.0 32 32 38 255
12.0 15.5 10.0 32 33 39 255
12.0 15.0 10.0 33 33 41 255
12.0 14.5 10.0 32 32 41 255
12.0 14.0 10.0 32 32 42 255
12.0 13.5 10.0 32 31 39 255
12.0 13.0 10.0 26 33 37 255
12.0 12.5 10.0 96 103 106 255
12.0 12.0 10.0 223 226 228 255
12.0 11.5 10.0 248 254 252 255
12.0 11.0 9.96078431373 253 249 248 255
12.0 10.5 9.6862745098 250 182 197 255
12.0 10.0 8.19607843137 236 44 85 255
12.0 9.5 3.64705882353 247 8 61 255
12.0 9.0 3.92156862745 255 5 63 255
12.0 8.5 4.70588235294 253 10 64 255
12.0 8.0 4.78431372549 250 12 64 255
12.0 7.5 4.90196078431 254 8 64 255
12.0 7.0 4.98039215686 253 6 71 255
12.0 6.5 5.05882352941 208 20 55 255
12.0 6.0 5.17647058824 100 19 35 255
12.0 5.5 5.13725490196 44 33 31 255
12.0 5.0 4.74509803922 135 141 46 255
12.0 4.5 3.52941176471 224 220 52 255
12.0 4.0 0.352941176471 235 222 36 255
12.0 3.5 0 234 222 40 255
12.0 3.0 0 233 222 42 255
12.0 2.5 0 233 222 42 255
12.0 2.0 0 233 222 42 255
12.0 1.5 0 233 222 42 255
12.0 1.0 0 233 222 42 255
12.0 0.5 0 233 222 42 255
12.0 0.0 0 233 222 42 255
12.5 35.0 0 233 222 42 255
12.5 34.5 0 233 222 42 255
12.5 34.0 0 233 222 42 255
12.5 33.5 0 233 222 42 255
12.5 33.0 0 234 222 40 255
12.5 32.5 0 233 222 42 255
12.5 32.0 1.05882352941 233 221 51 255
12.5 31.5 6.43137254902 235 222 41 255
12.5 31.0 7.29411764706 219 211 50 255
12.5 30.5 7.37254901961 100 98 28 255
12.5 30.0 7.49019607843 58 25 30 255
12.5 29.5 7.60784313725 178 15 55 255
12.5 29.0 7.6862745098 247 9 64 255
12.5 28.5 7.76470588235 249 11 57 255
12.5 28.0 7.60784313725 253 9 53 255
12.5 27.5 7.33333333333 254 8 56 255
12.5 27.0 7.05882352941 251 9 58 255
12.5 26.5 6.70588235294 248 10 56 255
12.5 26.0 2.3137254902 241 20 66 255
12.5 25.5 0 247 133 160 255
12.5 25.0 0 251 240 245 255
12.5 24.5 0 248 253 254 255
12.5 24.0 0 250 249 251 255
12.5 23.5 0 165 161 166 255
12.5 23.0 0.392156862745 41 44 52 255
12.5 22.5 1.72549019608 28 31 40 255
12.5 22.0 2.3137254902 28 31 40 255
12.5 21.5 3.05882352941 28 31 40 255
12.5 21.0 4.07843137255 30 32 40 255
12.5 20.5 5.33333333333 29 31 38 255
12.5 20.0 6.66666666667 38 39 41 255
12.5 19.5 7.76470588235 97 98 90 255
12.5 19.0 8.62745098039 148 147 131 255
12.5 18.5 9.25490196078 167 164 141 255
12.5 18.0 9.64705882353 178 172 149 255
12.5 17.5 9.80392156863 175 165 148 255
12.5 17.0 9.88235294118 148 140 129 255
12.5 16.5 9.96078431373 86 87 83 255
12.5 16.0 10.0 37 38 37 255
12.5 15.5 10.0 31 32 33 255
12.5 15.0 10.0 32 33 37 255
12.5 14.5 10.0 32 33 38 255
12.5 14.0 10.0 32 33 39 255
12.5 13.5 10.0 28 35 40 255
12.5 13.0 10.0 30 30 38 255
12.5 12.5 10.0 47 42 50 255
12.5 12.0 10.0 161 166 168 255
12.5 11.5 10.0 247 250 250 255
12.5 11.0 9.92156862745 254 250 252 255
12.5 10.5 8.66666666667 254 226 233 255
12.5 10.0 2.54901960784 236 88 117 255
12.5 9.5 0.509803921569 236 14 63 255
12.5 9.0 3.72549019608 254 6 65 255
12.5 8.5 4.58823529412 254 8 66 255
12.5 8.0 4.70588235294 249 12 66 255
12.5 7.5 4.78431372549 251 11 66 255
12.5 7.0 4.86274509804 253 9 68 255
12.5 6.5 4.98039215686 243 14 64 255
12.5 6.0 5.05882352941 170 20 50 255
12.5 5.5 5.01960784314 55 20 36 255
12.5 5.0 4.58823529412 59 60 26 255
12.5 4.5 3.17647058824 182 170 45 255
12.5 4.0 0.196078431373 230 222 49 255
12.5 3.5 0 232 223 43 255
12.5 3.0 0 233 222 42 255
12.5 2.5 0 233 222 42 255
12.5 2.0 0 233 222 42 255
12.5 1.5 0 233 222 42 255
12.5 1.0 0 233 222 42 255
12.5 0.5 0 233 222 42 255
12.5 0.0 0 233 222 42 255
13.0 35.0 0 234 220 41 255
13.0 34.5 0 233 221 48 255
13.0 34.0 0 231 223 42 255
13.0 33.5 0 233 223 39 255
13.0 33.0 0 234 223 42 255
13.0 32.5 0 233 222 47 255
13.0 32.0 0.745098039216 235 219 53 255
13.0 31.5 6.0 239 220 50 255
13.0 31.0 7.17647058824 175 173 43 255
13.0 30.5 7.29411764706 55 51 14 255
13.0 30.0 7.37254901961 101 21 44 255
13.0 29.5 7.49019607843 220 12 59 255
13.0 29.0 7.56862745098 248 9 60 255
13.0 28.5 7.64705882353 248 10 56 255
13.0 28.0 7.52941176471 253 7 54 255
13.0 27.5 7.25490196078 253 8 56 255
13.0 27.0 6.98039215686 252 9 58 255
13.0 26.5 6.62745098039 247 9 55 255
13.0 26.0 2.58823529412 234 43 82 255
13.0 25.5 0 249 188 201 255
13.0 25.0 0 253 247 250 255
13.0 24.5 0 250 252 253 255
13.0 24.0 0 233 237 238 255
13.0 23.5 0 108 104 111 255
13.0 23.0 0.313725490196 29 30 39 255
13.0 22.5 1.45098039216 30 33 41 255
13.0 22.0 1.64705882353 29 33 42 255
13.0 21.5 1.76470588235 31 33 46 255
13.0 21.0 1.88235294118 29 30 40 255
13.0 20.5 2.0 42 41 43 255
13.0 20.0 2.1568627451 125 121 110 255
13.0 19.5 2.3137254902 184 179 155 255
13.0 19.0 2.62745098039 193 190 156 255
13.0 18.5 3.21568627451 196 192 156 255
13.0 18.0 4.07843137255 197 189 158 255
13.0 17.5 5.6862745098 200 187 160 255
13.0 17.0 7.25490196078 199 187 162 255
13.0 16.5 8.62745098039 179 174 157 255
13.0 16.0 9.8431372549 105 103 93 255
13.0 15.5 10.0 38 39 36 255
13.0 15.0 10.0 30 32 35 255
13.0 14.5 10.0 31 33 40 255
13.0 14.0 10.0 30 33 40 255
13.0 13.5 10.0 25 35 41 255
13.0 13.0 10.0 32 31 40 255
13.0 12.5 10.0 33 24 34 255
13.0 12.0 10.0 95 98 101 255
13.0 11.5 10.0 231 234 235 255
13.0 11.0 9.8431372549 253 251 253 255
13.0 10.5 7.56862745098 255 246 248 255
13.0 10.0 0.627450980392 243 142 162 255
13.0 9.5 0.509803921569 235 25 71 255
13.0 9.0 3.80392156863 254 7 64 255
13.0 8.5 4.47058823529 255 8 65 255
13.0 8.0 4.58823529412 252 10 67 255
13.0 7.5 4.66666666667 250 12 65 255
13.0 7.0 4.78431372549 245 14 67 255
13.0 6.5 4.86274509804 247 10 70 255
13.0 6.0 4.98039215686 227 16 60 255
13.0 5.5 4.90196078431 123 22 46 255
13.0 5.0 4.43137254902 37 26 35 255
13.0 4.5 2.82352941176 90 85 28 255
13.0 4.0 0.117647058824 196 194 56 255
13.0 3.5 0 231 224 48 255
13.0 3.0 0 233 222 40 255
13.0 2.5 0 233 223 40 255
13.0 2.0 0 233 223 39 255
13.0 1.5 0 233 222 41 255
13.0 1.0 0 233 222 43 255
13.0 0.5 0 233 222 43 255
13.0 0.0 0 233 222 42 255
13.5 35.0 0 237 221 42 255
13.5 34.5 0 233 221 50 255
13.5 34.0 0 230 224 41 255
13.5 33.5 0 232 223 38 255
13.5 33.0 0 234 222 44 255
13.5 32.5 0 234 221 46 255
13.5 32.0 0.470588235294 237 222 36 255
13.5 31.5 5.52941176471 232 209 51 255
13.5 31.0 7.05882352941 107 118 34 255
13.5 30.5 7.17647058824 38 30 21 255
13.5 30.0 7.29411764706 159 15 51 255
13.5 29.5 7.37254901961 244 9 56 255
13.5 29.0 7.49019607843 252 9 57 255
13.5 28.5 7.52941176471 251 8 56 255
13.5 28.0 7.45098039216 251 8 56 255
13.5 27.5 7.17647058824 252 9 57 255
13.5 27.0 6.90196078431 253 10 57 255
13.5 26.5 6.58823529412 248 10 56 255
13.5 26.0 2.90196078431 241 66 104 255
13.5 25.5 0 252 221 230 255
13.5 25.0 0 250 250 251 255
13.5 24.5 0 252 252 251 255
13.5 24.0 0 212 212 215 255
13.5 23.5 0 64 64 72 255
13.5 23.0 0.274509803922 27 29 38 255
13.5 22.5 1.29411764706 30 35 40 255
13.5 22.0 1.52941176471 29 34 42 255
13.5 21.5 1.60784313725 31 33 48 255
13.5 21.0 1.72549019608 32 31 40 255
13.5 20.5 1.8431372549 82 80 73 255
13.5 20.0 1.96078431373 189 178 161 255
13.5 19.5 1.80392156863 198 188 161 255
13.5 19.0 1.41176470588 192 186 155 255
13.5 18.5 0.980392156863 169 164 140 255
13.5 18.0 0.274509803922 150 142 127 255
13.5 17.5 0.156862745098 173 162 145 255
13.5 17.0 0.43137254902 198 186 160 255
13.5 16.5 2.43137254902 197 187 160 255
13.5 16.0 9.05882352941 173 167 149 255
13.5 15.5 9.96078431373 70 69 63 255
13.5 15.0 10.0 28 30 35 255
13.5 14.5 10.0 30 33 42 255
13.5 14.0 10.0 30 33 42 255
13.5 13.5 10.0 31 34 43 255
13.5 13.0 10.0 29 32 41 255
13.5 12.5 10.0 27 30 36 255
13.5 12.0 10.0 62 63 67 255
13.5 11.5 10.0 203 203 205 255
13.5 11.0 9.76470588235 253 252 253 255
13.5 10.5 7.17647058824 254 251 250 255
13.5 10.0 0.43137254902 251 178 193 255
13.5 9.5 0.627450980392 244 40 86 255
13.5 9.0 3.8431372549 253 8 61 255
13.5 8.5 4.39215686275 253 10 65 255
13.5 8.0 4.47058823529 255 7 68 255
13.5 7.5 4.58823529412 252 11 64 255
13.5 7.0 4.66666666667 247 14 61 255
13.5 6.5 4.78431372549 248 10 67 255
13.5 6.0 4.86274509804 251 9 67 255
13.5 5.5 4.74509803922 203 20 59 255
13.5 5.0 4.27450980392 86 24 43 255
13.5 4.5 2.43137254902 40 36 21 255
13.5 4.0 0.0392156862745 118 121 34 255
13.5 3.5 0 221 213 51 255
13.5 3.0 0 233 223 42 255
13.5 2.5 0 234 224 39 255
13.5 2.0 0 233 223 38 255
13.5 1.5 0 233 223 40 255
13.5 1.0 0 233 222 44 255
13.5 0.5 0 233 222 44 255
13.5 0.0 0 233 222 42 255
14.0 35.0 0 232 221 42 255
14.0 34.5 0 231 224 41 255
14.0 34.0 0 230 225 35 255
14.0 33.5 0 234 222 42 255
14.0 33.0 0 237 222 41 255
14.0 32.5 0 236 221 40 255
14.0 32.0 0.235294117647 231 225 39 255
14.0 31.5 4.98039215686 185 169 39 255
14.0 31.0 6.94117647059 56 55 23 255
14.0 30.5 7.05882352941 87 24 50 255
14.0 30.0 7.17647058824 219 12 57 255
14.0 29.5 7.25490196078 251 9 57 255
14.0 29.0 7.37254901961 252 9 57 255
14.0 28.5 7.45098039216 252 9 57 255
14.0 28.0 7.37254901961 251 8 56 255
14.0 27.5 7.09803921569 252 9 57 255
14.0 27.0 6.82352941176 252 10 57 255
14.0 26.5 6.50980392157 245 12 56 255
14.0 26.0 3.21568627451 245 82 118 255
14.0 25.5 0 252 230 237 255
14.0 25.0 0 249 253 253 255
14.0 24.5 0 250 252 250 255
14.0 24.0 0 188 188 190 255
14.0 23.5 0 45 44 53 255
14.0 23.0 0.274509803922 28 30 40 255
14.0 22.5 1.17647058824 30 35 39 255
14.0 22.0 1.37254901961 30 35 41 255
14.0 21.5 1.49019607843 29 32 42 255
14.0 21.0 1.60784313725 41 42 42 255
14.0 20.5 1.72549019608 132 131 115 255
14.0 20.0 1.80392156863 198 188 163 255
14.0 19.5 1.6862745098 200 188 163 255
14.0 19.0 1.33333333333 155 147 131 255
14.0 18.5 1.05882352941 65 59 57 255
14.0 18.0 0.941176470588 41 36 41 255
14.0 17.5 0.862745098039 73 69 62 255
14.0 17.0 0.745098039216 167 162 138 255
14.0 16.5 2.07843137255 197 189 158 255
14.0 16.0 8.94117647059 193 187 165 255
14.0 15.5 9.88235294118 102 102 92 255
14.0 15.0 9.96078431373 29 31 33 255
14.0 14.5 10.0 30 33 38 255
14.0 14.0 10.0 30 33 38 255
14.0 13.5 10.0 30 34 41 255
14.0 13.0 10.0 30 33 42 255
14.0 12.5 10.0 28 30 37 255
14.0 12.0 10.0 46 47 52 255
14.0 11.5 9.92156862745 177 178 180 255
14.0 11.0 9.64705882353 251 251 251 255
14.0 10.5 6.74509803922 254 253 251 255
14.0 10.0 0.313725490196 255 195 206 255
14.0 9.5 0.745098039216 246 54 96 255
14.0 9.0 3.8431372549 251 11 61 255
14.0 8.5 4.27450980392 250 11 65 255
14.0 8.0 4.39215686275 254 8 68 255
14.0 7.5 4.47058823529 254 10 64 255
14.0 7.0 4.54901960784 254 11 51 255
14.0 6.5 4.66666666667 255 7 65 255
14.0 6.0 4.74509803922 252 7 80 255
14.0 5.5 4.62745098039 243 14 67 255
14.0 5.0 4.11764705882 166 24 52 255
14.0 4.5 2.03921568627 52 28 31 255
14.0 4.0 0 52 54 16 255
14.0 3.5 0 178 168 30 255
14.0 3.0 0 235 223 51 255
14.0 2.5 0 233 222 45 255
14.0 2.0 0 233 223 42 255
14.0 1.5 0 233 223 40 255
14.0 1.0 0 233 222 42 255
14.0 0.5 0 233 222 43 255
14.0 0.0 0 233 222 42 255
14.5 35.0 0 232 223 44 255
14.5 34.5 0 230 225 35 255
14.5 34.0 0 230 226 33 255
14.5 33.5 0 234 221 44 255
14.5 33.0 0 239 221 40 255
14.5 32.5 0 231 224 45 255
14.5 32.0 0.117647058824 209 205 70 255
14.5 31.5 4.39215686275 107 95 40 255
14.5 31.0 6.86274509804 72 22 29 255
14.5 30.5 6.94117647059 173 19 57 255
14.5 30.0 7.05882352941 246 8 55 255
14.5 29.5 7.17647058824 252 8 56 255
14.5 29.0 7.25490196078 251 8 56 255
14.5 28.5 7.33333333333 252 9 57 255
14.5 28.0 7.25490196078 252 9 57 255
14.5 27.5 7.01960784314 252 9 57 255
14.5 27.0 6.74509803922 252 10 57 255
14.5 26.5 6.43137254902 244 15 58 255
14.5 26.0 3.49019607843 247 92 126 255
14.5 25.5 0 252 232 238 255
14.5 25.0 0 249 253 253 255
14.5 24.5 0 249 252 250 255
14.5 24.0 0.0392156862745 179 178 180 255
14.5 23.5 0.352941176471 41 39 49 255
14.5 23.0 1.05882352941 30 31 42 255
14.5 22.5 1.45098039216 30 34 39 255
14.5 22.0 1.49019607843 30 35 39 255
14.5 21.5 1.52941176471 28 32 39 255
14.5 21.0 1.56862745098 46 47 44 255
14.5 20.5 1.64705882353 146 145 125 255
14.5 20.0 1.72549019608 199 189 160 255
14.5 19.5 1.60784313725 201 190 164 255
14.5 19.0 1.49019607843 138 130 118 255
14.5 18.5 1.45098039216 42 36 42 255
14.5 18.0 1.45098039216 29 25 37 255
14.5 17.5 1.45098039216 48 47 43 255
14.5 17.0 1.45098039216 150 149 125 255
14.5 16.5 2.82352941176 197 190 157 255
14.5 16.0 8.98039215686 195 189 165 255
14.5 15.5 9.80392156863 115 115 103 255
14.5 15.0 9.88235294118 30 33 32 255
14.5 14.5 9.96078431373 30 34 37 255
14.5 14.0 10.0 29 33 37 255
14.5 13.5 10.0 29 34 40 255
14.5 13.0 10.0 30 33 42 255
14.5 12.5 10.0 28 30 37 255
14.5 12.0 10.0 42 43 48 255
14.5 11.5 9.88235294118 169 170 172 255
14.5 11.0 9.52941176471 251 251 251 255
14.5 10.5 6.3137254902 254 253 251 255
14.5 10.0 0.196078431373 255 205 213 255
14.5 9.5 0.862745098039 246 63 103 255
14.5 9.0 3.8431372549 247 13 61 255
14.5 8.5 4.1568627451 249 12 65 255
14.5 8.0 4.27450980392 254 8 68 255
14.5 7.5 4.35294117647 254 10 64 255
14.5 7.0 4.47058823529 254 10 56 255
14.5 6.5 4.54901960784 254 9 65 255
14.5 6.0 4.62745098039 253 11 70 255
14.5 5.5 4.47058823529 247 13 63 255
14.5 5.0 3.96078431373 167 21 60 255
14.5 4.5 1.64705882353 43 29 37 255
14.5 4.0 0 66 66 26 255
14.5 3.5 0 194 181 44 255
14.5 3.0 0 234 221 54 255
14.5 2.5 0 233 221 47 255
14.5 2.0 0 233 222 44 255
14.5 1.5 0 233 223 41 255
14.5 1.0 0 233 222 42 255
14.5 0.5 0 233 222 42 255
14.5 0.0 0 233 222 42 255
15.0 35.0 0 234 223 43 255
15.0 34.5 0 231 224 39 255
15.0 34.0 0 230 225 35 255
15.0 33.5 0 234 222 44 255
15.0 33.0 0 238 221 44 255
15.0 32.5 0 224 225 48 255
15.0 32.0 0.0392156862745 156 148 47 255
15.0 31.5 3.76470588235 42 36 30 255
15.0 31.0 6.74509803922 102 21 44 255
15.0 30.5 6.82352941176 220 14 51 255
15.0 30.0 6.94117647059 249 9 58 255
15.0 29.5 7.05882352941 253 10 58 255
15.0 29.0 7.13725490196 253 10 58 255
15.0 28.5 7.25490196078 253 10 58 255
15.0 28.0 7.17647058824 253 10 58 255
15.0 27.5 6.94117647059 253 10 58 255
15.0 27.0 6.62745098039 253 10 57 255
15.0 26.5 6.35294117647 246 12 57 255
15.0 26.0 3.76470588235 248 86 122 255
15.0 25.5 0.0392156862745 252 231 238 255
15.0 25.0 0 249 253 253 255
15.0 24.5 0.156862745098 251 253 252 255
15.0 24.0 0.901960784314 187 186 188 255
15.0 23.5 1.6862745098 44 43 52 255
15.0 23.0 1.88235294118 30 31 41 255
15.0 22.5 1.88235294118 30 34 39 255
15.0 22.0 1.88235294118 29 33 40 255
15.0 21.5 1.88235294118 30 33 43 255
15.0 21.0 1.88235294118 38 39 41 255
15.0 20.5 1.88235294118 130 129 115 255
15.0 20.0 1.76470588235 196 186 159 255
15.0 19.5 1.6862745098 198 187 158 255
15.0 19.0 1.76470588235 183 176 154 255
15.0 18.5 1.80392156863 123 118 110 255
15.0 18.0 1.8431372549 87 82 81 255
15.0 17.5 1.88235294118 124 120 108 255
15.0 17.0 1.88235294118 186 180 154 255
15.0 16.5 3.21568627451 197 188 158 255
15.0 16.0 8.94117647059 187 181 159 255
15.0 15.5 9.6862745098 97 97 88 255
15.0 15.0 9.76470588235 29 32 34 255
15.0 14.5 9.88235294118 30 33 39 255
15.0 14.0 9.96078431373 29 32 38 255
15.0 13.5 10.0 30 33 41 255
15.0 13.0 10.0 30 33 42 255
15.0 12.5 10.0 29 31 38 255
15.0 12.0 10.0 44 45 49 255
15.0 11.5 9.80392156863 176 176 178 255
15.0 11.0 9.41176470588 253 253 253 255
15.0 10.5 6.0 253 253 250 255
15.0 10.0 0.392156862745 255 203 212 255
15.0 9.5 1.09803921569 246 62 102 255
15.0 9.0 3.80392156863 246 12 60 255
15.0 8.5 4.07843137255 249 12 65 255
15.0 8.0 4.1568627451 254 7 68 255
15.0 7.5 4.27450980392 254 9 64 255
15.0 7.0 4.35294117647 250 10 66 255
15.0 6.5 4.47058823529 249 10 67 255
15.0 6.0 4.50980392157 247 12 53 255
15.0 5.5 4.3137254902 207 18 55 255
15.0 5.0 3.76470588235 94 15 51 255
15.0 4.5 1.29411764706 38 44 28 255
15.0 4.0 0 149 143 46 255
15.0 3.5 0 233 218 61 255
15.0 3.0 0 234 222 49 255
15.0 2.5 0 232 221 43 255
15.0 2.0 0 233 223 41 255
15.0 1.5 0 233 223 40 255
15.0 1.0 0 233 222 42 255
15.0 0.5 0 233 222 43 255
15.0 0.0 0 233 222 42 255
15.5 35.0 0 237 222 40 255
15.5 34.5 0 232 222 45 255
15.5 34.0 0 230 224 39 255
15.5 33.5 0 233 222 43 255
15.5 33.0 0 233 222 51 255
15.5 32.5 0 229 225 40 255
15.5 32.0 0 194 180 41 255
15.5 31.5 3.13725490196 69 67 24 255
15.5 31.0 6.62745098039 67 22 39 255
15.5 30.5 6.70588235294 173 17 58 255
15.5 30.0 6.82352941176 236 14 60 255
15.5 29.5 6.94117647059 253 11 58 255
15.5 29.0 7.01960784314 254 11 59 255
15.5 28.5 7.13725490196 254 11 59 255
15.5 28.0 7.09803921569 253 10 58 255
15.5 27.5 6.86274509804 253 10 58 255
15.5 27.0 6.54901960784 253 10 57 255
15.5 26.5 6.27450980392 249 10 57 255
15.5 26.0 3.96078431373 244 69 108 255
15.5 25.5 0.156862745098 253 223 232 255
15.5 25.0 0.549019607843 252 252 253 255
15.5 24.5 1.6862745098 253 253 252 255
15.5 24.0 2.27450980392 202 201 204 255
15.5 23.5 2.3137254902 54 55 63 255
15.5 23.0 2.3137254902 27 29 38 255
15.5 22.5 2.3137254902 30 34 39 255
15.5 22.0 2.3137254902 30 34 42 255
15.5 21.5 2.3137254902 31 34 48 255
15.5 21.0 2.27450980392 32 32 40 255
15.5 20.5 2.07843137255 85 83 76 255
15.5 20.0 1.76470588235 188 179 157 255
15.5 19.5 1.60784313725 198 189 157 255
15.5 19.0 1.72549019608 196 191 155 255
15.5 18.5 1.80392156863 190 185 157 255
15.5 18.0 1.92156862745 180 173 153 255
15.5 17.5 2.03921568627 191 181 158 255
15.5 17.0 2.11764705882 199 187 157 255
15.5 16.5 3.49019607843 199 189 161 255
15.5 16.0 8.94117647059 152 146 129 255
15.5 15.5 9.60784313725 58 56 51 255
15.5 15.0 9.6862745098 29 31 37 255
15.5 14.5 9.76470588235 29 32 41 255
15.5 14.0 9.88235294118 30 32 41 255
15.5 13.5 9.92156862745 29 33 42 255
15.5 13.0 10.0 30 33 42 255
15.5 12.5 10.0 29 31 38 255
15.5 12.0 9.96078431373 54 55 59 255
15.5 11.5 9.6862745098 190 190 192 255
15.5 11.0 9.29411764706 252 252 253 255
15.5 10.5 6.23529411765 254 253 251 255
15.5 10.0 2.07843137255 254 193 203 255
15.5 9.5 2.39215686275 245 51 93 255
15.5 9.0 3.80392156863 249 11 61 255
15.5 8.5 3.96078431373 250 12 65 255
15.5 8.0 4.03921568627 255 7 68 255
15.5 7.5 4.1568627451 254 9 64 255
15.5 7.0 4.27450980392 253 8 65 255
15.5 6.5 4.35294117647 250 9 67 255
15.5 6.0 4.43137254902 233 15 61 255
15.5 5.5 4.1568627451 151 17 49 255
15.5 5.0 3.52941176471 50 22 38 255
15.5 4.5 1.01960784314 90 91 37 255
15.5 4.0 0 210 200 48 255
15.5 3.5 0 234 223 44 255
15.5 3.0 0 234 224 44 255
15.5 2.5 0 233 222 39 255
15.5 2.0 0 233 223 38 255
15.5 1.5 0 233 223 40 255
15.5 1.0 0 233 222 43 255
15.5 0.5 0 233 222 44 255
15.5 0.0 0 233 222 42 255
16.0 35.0 0 236 222 40 255
16.0 34.5 0 233 221 45 255
16.0 34.0 0 232 223 42 255
16.0 33.5 0 232 223 42 255
16.0 33.0 0 228 223 47 255
16.0 32.5 0 235 219 40 255
16.0 32.0 0 238 218 39 255
16.0 31.5 2.50980392157 147 151 32 255
16.0 31.0 6.43137254902 47 42 27 255
16.0 30.5 6.62745098039 92 14 50 255
16.0 30.0 6.70588235294 194 21 55 255
16.0 29.5 6.82352941176 248 13 55 255
16.0 29.0 6.94117647059 251 10 57 255
16.0 28.5 7.01960784314 252 11 61 255
16.0 28.0 6.98039215686 253 9 61 255
16.0 27.5 6.78431372549 254 9 60 255
16.0 27.0 6.47058823529 254 10 57 255
16.0 26.5 6.1568627451 250 7 55 255
16.0 26.0 4.35294117647 239 44 86 255
16.0 25.5 1.49019607843 252 197 210 255
16.0 25.0 2.47058823529 251 252 252 255
16.0 24.5 2.74509803922 253 251 253 255
16.0 24.0 2.74509803922 227 227 230 255
16.0 23.5 2.74509803922 86 90 95 255
16.0 23.0 2.74509803922 26 29 36 255
16.0 22.5 2.74509803922 29 33 39 255
16.0 22.0 2.74509803922 29 34 43 255
16.0 21.5 2.62745098039 31 34 47 255
16.0 21.0 2.39215686275 30 32 43 255
16.0 20.5 2.03921568627 40 40 44 255
16.0 20.0 1.64705882353 112 105 97 255
16.0 19.5 1.49019607843 174 166 145 255
16.0 19.0 1.56862745098 193 188 158 255
